ply
format ascii 1.0
element vertex 1485
property float x
property float y
property float z
end_header
-0.572104 0.40740737 1.6737789
-0.5717783 0.39851213 1.672826
-0.57177836 0.3898489 1.6728263
-0.5717711 0.38118073 1.672805
-0.5714448 0.37230498 1.6718504
-0.5714451 0.36364686 1.6718512
-0.57144517 0.35498866 1.6718514
-0.5711114 0.3461281 1.6708748
-0.57111114 0.3374748 1.6708742
-0.5711107 0.32882133 1.670873
-0.57077616 0.31998056 1.6698941
-0.5707835 0.31133646 1.6699156
-0.57110655 0.30285954 1.6708608
-0.57044804 0.29386717 1.6689341
-0.57178074 0.28589037 1.6728332
-0.57307935 0.27785665 1.6766324
-0.57471246 0.2699407 1.6814104
-0.5783989 0.2629086 1.6921957
-0.5839935 0.2566032 1.7085634
-0.8178231 0.34695527 2.3926682
-0.8218261 0.33620158 2.4043796
-0.8157096 0.32134014 2.3864849
-0.81727904 0.3095754 2.3910766
-0.8152222 0.29644445 2.3850589
-0.8158636 0.28431612 2.3869355
-0.8138803 0.27129343 2.381133
-0.81314594 0.25872824 2.3789845
-0.81114095 0.2458003 2.3731186
-0.8090754 0.23291564 2.3670754
-0.8057025 0.21973705 2.3572075
-0.8023338 0.20666173 2.3473518
-0.7990064 0.19369851 2.337617
-0.79706544 0.18115124 2.3319385
-0.7983807 0.16935347 2.3357863
-0.79775965 0.15713449 2.3339696
-0.8010971 0.14565402 2.3437338
-0.8037681 0.13396135 2.3515482
-0.8077735 0.12238992 2.3632665
-0.81113094 0.110608764 2.3730893
-0.81446904 0.09872352 2.3828554
-0.8171604 0.08666853 2.3907294
-0.8211455 0.07464959 2.4023883
-0.8238388 0.062412027 2.410268
-0.8271781 0.050132006 2.4200377
-0.8305156 0.03775071 2.4298022
-0.8332071 0.025248699 2.4376764
-0.83654386 0.012674907 2.4474387
-0.8392377 -0.0 2.45532
-0.8418877 -0.012755875 2.463073
-0.84455824 -0.025592674 2.470886
-0.8458933 -0.038449697 2.474792
-0.8465583 -0.051306564 2.4767375
-0.84653383 -0.06413135 2.476666
-0.84515536 -0.0768323 2.472633
-0.8424645 -0.089352295 2.4647605
-0.83710545 -0.10146733 2.4490817
-0.83174485 -0.11341976 2.4333985
-0.8250692 -0.12501048 2.4138677
-0.818413 -0.13640217 2.3943942
-0.8130731 -0.14783147 2.3787713
-0.80706555 -0.15896745 2.3611953
-0.80107534 -0.16992506 2.34367
-0.79571575 -0.1808445 2.3279898
-0.79037476 -0.191606 2.3123639
-0.7843854 -0.20203866 2.294841
-0.77904457 -0.2124667 2.2792156
-0.7736845 -0.22272736 2.263534
-0.76769614 -0.23263519 2.246014
-0.76235515 -0.24256755 2.2303882
-0.757015 -0.25233832 2.2147646
-0.7516744 -0.26194715 2.19914
-0.7469832 -0.27163023 2.185415
-0.7423099 -0.281178 2.1717427
-0.73696905 -0.29032114 2.1561172
-0.73164564 -0.29930958 2.1405427
-0.72695315 -0.30840436 2.1268141
-0.7222788 -0.3173649 2.1131384
-0.71760345 -0.32618338 2.0994601
-0.7122822 -0.3345568 2.0838919
-0.7075878 -0.34307286 2.0701578
-0.7029347 -0.35146734 2.0565443
-0.6982609 -0.35971016 2.0428705
-0.69358724 -0.3678114 2.029197
-0.688914 -0.37577125 2.0155246
-0.68488765 -0.38395217 2.003745
-0.67990273 -0.39145914 1.9891608
-0.67588675 -0.39938763 1.9774114
-0.6715579 -0.40700477 1.9647467
-0.667219 -0.41448453 1.9520526
-0.6628899 -0.42183903 1.9393872
-0.65887433 -0.4292666 1.927639
-0.65487903 -0.43658602 1.9159501
-0.65151983 -0.44421807 1.9061222
-0.64719003 -0.45107183 1.8934547
-0.6435062 -0.45825443 1.8826772
-0.63983333 -0.4653333 1.8719316
-0.6358387 -0.47206205 1.8602446
-0.6324878 -0.4791574 1.850441
-0.6288145 -0.48590213 1.8396944
-0.6251413 -0.49253562 1.8289479
-0.621469 -0.49905846 1.8182039
-0.6174884 -0.5052178 1.806558
-0.6141384 -0.51178205 1.7967572
-0.6108127 -0.5182653 1.7870272
-0.6077963 -0.524915 1.7782023
-0.6044588 -0.5311911 1.768438
-0.6014416 -0.5376524 1.7596107
-0.59841084 -0.54400986 1.7507436
-0.5950825 -0.5500005 1.7410061
-0.5917401 -0.55587703 1.7312273
-0.5883978 -0.5616524 1.7214489
-0.5851177 -0.5673868 1.7118524
-0.5831485 -0.5743129 1.7060913
-0.58116966 -0.58116966 1.7003019
-0.5805338 -0.5893298 1.6984416
-0.58132476 -0.5989407 1.7007557
-0.58279526 -0.60928595 1.7050579
-0.58562624 -0.6211187 1.7133403
-0.5884047 -0.6329808 1.7214692
-0.5910876 -0.64482284 1.7293184
-0.5932167 -0.65613365 1.7355474
-0.5953222 -0.66748244 1.7417073
-0.5967852 -0.67816496 1.7459875
-0.59977764 -0.690653 1.7547424
-0.60260165 -0.70303524 1.7630045
-0.60654366 -0.7168243 1.7745374
-0.6111711 -0.7315533 1.7880758
-0.62529194 -0.7579296 1.8293885
-0.67314476 -0.8261322 1.9693893
-0.7797894 -0.9688292 2.2813947
-0.8215154 -1.0331178 2.4034705
-0.86841846 -1.1052599 2.5406928
-0.8806845 -1.1342149 2.576579
-0.9035952 -1.1774119 2.6436079
-0.92624056 -1.2209535 2.7098603
-0.92891437 -1.2385526 2.717683
-0.9307191 -1.2550606 2.7229629
-0.93015075 -1.2683873 2.7213001
-0.92922735 -1.2812074 2.7185986
-0.9275978 -1.2930151 2.7138312
-0.92523277 -1.303737 2.7069118
-0.92292535 -1.3144695 2.7001612
-0.91848904 -1.3220675 2.687182
-0.5775536 0.82753944 1.6645027
-0.5817983 0.8249379 1.676736
-0.57845145 0.8115587 1.6670904
-0.57810676 0.80244666 1.666097
-0.5774276 0.79288566 1.6641397
-0.577425 0.78426385 1.6641322
-0.5771027 0.7752126 1.6632034
-0.5767447 0.76612353 1.6621716
-0.57708156 0.7579579 1.6631424
-0.57707995 0.7493426 1.6631378
-0.5770657 0.7407112 1.6630968
-0.57706547 0.732098 1.6630961
-0.5770648 0.7234842 1.6630942
-0.57672644 0.71445215 1.662119
-0.57705134 0.7062419 1.6630553
-0.57672566 0.69723547 1.6621166
-0.576712 0.6886113 1.6620773
-0.5763871 0.6796206 1.661141
-0.5763736 0.67100203 1.6611019
-0.5763603 0.6623842 1.6610637
-0.5760352 0.65341306 1.6601268
-0.57602274 0.6448016 1.660091
-0.5760228 0.6362043 1.6600912
-0.57602227 0.62760633 1.6600895
-0.575671 0.61863154 1.6590773
-0.5756704 0.6100388 1.6590755
-0.57534385 0.6011055 1.6581343
-0.57534266 0.5925171 1.658131
-0.5750035 0.5835856 1.6571535
-0.57500315 0.57500315 1.6571524
-0.57498974 0.5664078 1.6571138
-0.57498866 0.5578248 1.6571107
-0.57498807 0.5492423 1.657109
-0.57498765 0.54066 1.6571078
-0.57497394 0.53206545 1.6570683
-0.5749875 0.5234961 1.6571074
-0.574988 0.51491463 1.6571089
-0.57497656 0.5063227 1.6570759
-0.5749913 0.49775368 1.6571183
-0.57465535 0.48888588 1.6561501
-0.5746571 0.4803104 1.6561551
-0.5746589 0.47173488 1.6561602
-0.5746601 0.46315888 1.6561638
-0.57466096 0.45458254 1.6561662
-0.57432306 0.4457433 1.6551925
-0.5743237 0.4371718 1.6551944
-0.5743243 0.42860022 1.655196
-0.57399446 0.41978702 1.6542455
-0.5739949 0.4112202 1.6542466
-0.57399535 0.40265346 1.654248
-0.5739959 0.39408672 1.6542495
-0.5739963 0.3855199 1.6542507
-0.5736651 0.3767353 1.6532962
-0.57366514 0.36817315 1.6532964
-0.5736654 0.35961112 1.653297
-0.573659 0.35104504 1.6532786
-0.5733266 0.34228453 1.6523206
-0.5729876 0.3335301 1.6513437
-0.57331866 0.3251658 1.6522979
-0.5726549 0.31624228 1.6503849
-0.57231593 0.30751306 1.649408
-0.5729752 0.29931542 1.6513081
-0.5726436 0.29059523 1.6503521
-0.5723141 0.28188604 1.6494026
-0.57330924 0.27381936 1.6522707
-0.57467705 0.26589537 1.6562127
-0.57838976 0.25898048 1.6669127
-0.5794368 0.250801 1.6699301
-0.58085483 0.24274531 1.674017
-0.6614747 0.26656443 1.9063624
-0.83155787 0.3226941 2.3965402
-0.8251797 0.30790287 2.3781583
-0.8256014 0.29573783 2.3793738
-0.8249211 0.28318185 2.377413
-0.82483166 0.27084023 2.3771553
-0.8241122 0.25830382 2.3750818
-0.8220752 0.24539557 2.3692112
-0.8206891 0.23273273 2.3652165
-0.81791663 0.2197388 2.3572264
-0.814526 0.20667078 2.3474545
-0.8111439 0.19370599 2.3377073
-0.80979514 0.18129742 2.3338203
-0.81115603 0.16949528 2.3377423
-0.81118065 0.15739326 2.3378134
-0.81323504 0.14565404 2.343734
-0.8166241 0.13407262 2.3535013
-0.82001245 0.12238992 2.3632665
-0.8240784 0.1106971 2.3749845
-0.82680917 0.09872348 2.3828545
-0.8302181 0.086739205 2.392679
-0.83360845 0.0746515 2.40245
-0.8369767 0.06246095 2.4121573
-0.8397331 0.05013332 2.4201012
-0.84309894 0.0377507 2.4298015
-0.84585285 0.02524934 2.4377382
-0.84921926 0.012674915 2.4474401
-0.85260767 -0.0 2.4572055
-0.8546651 -0.012756196 2.463135
-0.8573544 -0.025592668 2.4708855
-0.8587329 -0.038450725 2.4748583
-0.86003995 -0.05134567 2.4786253
-0.860016 -0.0641803 2.4785562
-0.85861707 -0.07689108 2.4745245
-0.8552292 -0.08935231 2.4647608
-0.85046655 -0.10154825 2.4510348
-0.8443663 -0.11342234 2.433454
-0.83824706 -0.1251115 2.4158185
-0.83147115 -0.1365102 2.3962903
-0.8253919 -0.14783138 2.3787699
-0.8199709 -0.15909883 2.3631468
-0.81387126 -0.17006266 2.3455677
-0.80779094 -0.18084872 2.3280442
-0.802369 -0.1916105 2.3124182
-0.79694664 -0.20221034 2.296791
-0.7915056 -0.2126433 2.28111
-0.78608364 -0.22291924 2.265484
-0.7799852 -0.2328314 2.2479084
-0.77458304 -0.24277976 2.2323394
-0.7691429 -0.2525544 2.216661
-0.7637222 -0.2621733 2.2010386
-0.75895935 -0.27186602 2.1873121
-0.75355655 -0.28117782 2.1717412
-0.7487928 -0.29057634 2.1580124
-0.74338883 -0.29957458 2.142438
-0.7386436 -0.30868685 2.1287622
-0.7338982 -0.31765744 2.1150863
-0.7284756 -0.32618308 2.0994582
-0.72373027 -0.33486027 2.0857823
-0.7189847 -0.34339568 2.0721056
-0.71423984 -0.35178977 2.058431
-0.7094948 -0.36004215 2.044756
-0.704751 -0.3681535 2.0310843
-0.70000696 -0.37612313 2.017412
-0.69528544 -0.3839636 2.0038047
-0.69086987 -0.39183664 1.9910791
-0.68646514 -0.3995842 1.9783847
-0.68207115 -0.40720665 1.9657211
-0.677677 -0.41469786 1.9530573
-0.6732618 -0.42204472 1.9403328
-0.66919565 -0.42948377 1.9286141
-0.6651296 -0.43680152 1.9168959
-0.66107345 -0.44400454 1.905206
-0.65733445 -0.45130423 1.8944303
-0.65326726 -0.45826212 1.8827088
-0.6498662 -0.4655758 1.872907
-0.646138 -0.4725487 1.8621624
-0.64208263 -0.47916612 1.8504747
-0.6383541 -0.48591134 1.8397292
-0.6346128 -0.49253532 1.8289468
-0.6308978 -0.49906844 1.8182403
-0.62749636 -0.5057433 1.8084373
-0.6237823 -0.5120601 1.7977334
-0.6207201 -0.51881087 1.7889082
-0.6173441 -0.52520317 1.7791786
-0.6139556 -0.531484 1.7694131
-0.61088043 -0.5379395 1.7605504
-0.60749036 -0.5440212 1.7507802
-0.60442406 -0.5502965 1.7419431
-0.6010302 -0.5561772 1.7321621
-0.59765166 -0.56197095 1.7224252
-0.59432197 -0.5677105 1.7128291
-0.5919839 -0.57431275 1.7060908
-0.5899937 -0.58118784 1.7003552
-0.58932936 -0.58932936 1.6984404
-0.59042954 -0.5992419 1.7016112
-0.59161454 -0.6092747 1.7050263
-0.594489 -0.62110794 1.7133105
-0.597271 -0.632929 1.7213283
-0.60005915 -0.6448397 1.7293636
-0.602489 -0.65644324 1.7363664
-0.60437274 -0.6675162 1.7417953
-0.6061813 -0.6785612 1.7470076
-0.6088169 -0.6905983 1.7546034
-0.61194825 -0.70328385 1.7636279
-0.61589885 -0.7170165 1.7750133
-0.6207021 -0.7318726 1.7888563
-0.6352548 -0.7585132 1.8307971
-0.6837639 -0.82663995 1.9705998
-0.79453796 -0.9724196 2.2898493
-0.831716 -1.0303347 2.396996
-0.8780175 -1.100798 2.5304363
-0.8917913 -1.131377 2.5701323
-0.91506046 -1.1745552 2.6371937
-0.9377535 -1.2176799 2.7025948
-0.94101524 -1.2359604 2.7119951
-0.9428814 -1.2524842 2.7173734
-0.94290346 -1.2665868 2.717437
-0.94207704 -1.2795374 2.7150552
-0.94029427 -1.2911503 2.7099173
-0.93744844 -1.3012345 2.7017157
-0.9353822 -1.3123273 2.6957607
-0.9316364 -1.320977 2.6849654
-0.57766014 0.8155202 1.6403275
-0.5816009 0.8125307 1.6515176
-0.5784827 0.79966724 1.6426631
-0.5784793 0.7911555 1.6426535
-0.57744825 0.7812535 1.6397257
-0.57744586 0.7727585 1.639719
-0.57744336 0.7642632 1.6397117
-0.5770976 0.75531894 1.63873
-0.5774402 0.74727553 1.6397028
-0.5774249 0.7387642 1.6396594
-0.5774246 0.73027223 1.6396585
-0.5774244 0.72178054 1.639658
-0.57742435 0.71328884 1.6396577
-0.57741094 0.704781 1.6396197
-0.5774107 0.69628936 1.639619
-0.57742405 0.68781394 1.639657
-0.5774096 0.67930543 1.639616
-0.57707995 0.67043114 1.6386799
-0.57706606 0.6619288 1.6386405
-0.5770657 0.6534421 1.6386395
-0.57706606 0.6449562 1.6386404
-0.57706624 0.63647014 1.638641
-0.5770536 0.6279701 1.638605
-0.5767101 0.61911523 1.6376296
-0.57670945 0.61063355 1.6376278
-0.5766969 0.60213935 1.6375921
-0.57636476 0.5933167 1.636649
-0.57635146 0.5848272 1.6366112
-0.57601976 0.57601976 1.6356694
-0.5760065 0.5675358 1.6356317
-0.5760056 0.5590642 1.635629
-0.5760051 0.55059314 1.6356277
-0.5760046 0.542122 1.6356263
-0.57600415 0.5336509 1.635625
-0.57600385 0.52518 1.6356242
-0.5760039 0.5167094 1.6356243
-0.5759911 0.50822747 1.635588
-0.5759926 0.49975824 1.6355921
-0.5763383 0.49158263 1.6365738
-0.57600933 0.48283133 1.6356397
-0.57566744 0.47407904 1.6346688
-0.5756798 0.46562338 1.634704
-0.57601434 0.45742315 1.635654
-0.57601523 0.44895303 1.6356565
-0.5760163 0.44048303 1.6356595
-0.5760172 0.4320129 1.6356621
-0.57568306 0.42329633 1.6347132
-0.57568353 0.41483077 1.6347146
-0.5760195 0.40660203 1.6356688
-0.5760284 0.39813727 1.6356939
-0.5760291 0.38966677 1.6356959
-0.5760297 0.38119614 1.6356976
-0.5756933 0.37250745 1.6347424
-0.57569337 0.3640414 1.6347425
-0.5756934 0.35557535 1.6347427
-0.57534957 0.34690195 1.6337663
-0.575343 0.33843705 1.6337476
-0.5750053 0.32978246 1.6327887
-0.57500464 0.32132614 1.6327869
-0.57466006 0.31268266 1.6318083
-0.5743153 0.30404928 1.6308293
-0.5743146 0.2956031 1.6308273
-0.57431334 0.28715667 1.6308239
-0.57363486 0.27838162 1.6288972
-0.57430804 0.2702626 1.6308087
-0.5749887 0.26212722 1.6327417
-0.57634795 0.25427115 1.6366012
-0.5773963 0.24624252 1.6395781
-0.58129364 0.2393562 1.6506451
-0.584601 0.23212099 1.6600367
-0.6031329 0.23060966 1.7126601
-0.8387167 0.30835173 2.3816252
-0.8363726 0.29519033 2.374969
-0.8338811 0.28204802 2.367894
-0.8344139 0.26995745 2.369407
-0.83572865 0.25809267 2.3731403
-0.8336576 0.24519342 2.3672595
-0.8315641 0.2323488 2.3613148
-0.8301565 0.21974732 2.3573177
-0.8273465 0.20683663 2.3493383
-0.82391316 0.19386192 2.339589
-0.8225709 0.18144946 2.3357775
-0.8232648 0.16949569 2.3377478
-0.82328933 0.15739356 2.3378177
-0.82604164 0.14577205 2.345633
-0.8295 0.13418382 2.3554535
-0.8329393 0.122491084 2.3652198
-0.83637834 0.110697135 2.3749852
-0.83983696 0.09880435 2.3848064
-0.8432763 0.086807854 2.3945727
-0.84671587 0.07471023 2.4043398
-0.8494902 0.062462516 2.4122179
-0.85293007 0.05017236 2.4219856
-0.8557042 0.037751656 2.429863
-0.8591416 0.02526887 2.4396238
-0.8619152 0.012675223 2.4474998
-0.86466736 -0.0 2.4553149
-0.86742055 -0.012756185 2.4631329
-0.8701726 -0.025593312 2.4709477
-0.87221247 -0.03847996 2.47674
-0.87287587 -0.05134564 2.4786239
-0.8735389 -0.06423081 2.4805067
-0.8714539 -0.076892994 2.474586
-0.8686814 -0.08942308 2.4667132
-0.8638284 -0.10162687 2.4529326
-0.8576567 -0.11351339 2.4354074
-0.85144585 -0.12521262 2.417771
-0.84456855 -0.13662139 2.3982422
-0.83839864 -0.14795269 2.380722
-0.832877 -0.15922648 2.3650427
-0.8267059 -0.17020415 2.3475192
-0.82051486 -0.18099593 2.3299391
-0.8143442 -0.19161041 2.312417
-0.80950946 -0.20237736 2.2986882
-0.80333877 -0.2126485 2.2811658
-0.7978161 -0.2229192 2.2654836
-0.7923136 -0.2330334 2.2498586
-0.7868109 -0.24298571 2.2342331
-0.78129005 -0.2527703 2.2185562
-0.7758071 -0.26240534 2.2029867
-0.7703241 -0.2718791 2.1874173
-0.76548946 -0.28142995 2.1736887
-0.7599867 -0.29058313 2.158063
-0.75517035 -0.29984707 2.1443865
-0.7503341 -0.3089611 2.1306534
-0.7455174 -0.31794122 2.1169758
-0.7400346 -0.32648584 2.1014068
-0.7352177 -0.33517277 2.0877287
-0.7304019 -0.34371853 2.0740538
-0.7255864 -0.3521228 2.0603797
-0.72010654 -0.36005327 2.044819
-0.7159553 -0.3685064 2.0330312
-0.71114045 -0.37648612 2.019359
-0.70632714 -0.38432506 2.005691
-0.70152426 -0.39202824 1.9920527
-0.6970538 -0.39978084 1.9793583
-0.69259447 -0.4074085 1.9666955
-0.6881245 -0.41489857 1.9540026
-0.68364334 -0.4222503 1.941278
-0.6795269 -0.42970085 1.9295889
-0.67541045 -0.43703032 1.9178998
-0.671284 -0.44423208 1.9061824
-0.6671563 -0.4513116 1.8944612
-0.6633611 -0.45849955 1.8836843
-0.65957713 -0.4655839 1.8729395
-0.6561251 -0.47279602 1.863137
-0.6520092 -0.47941852 1.8514494
-0.6482126 -0.48615947 1.8406687
-0.6444283 -0.49279812 1.8299227
-0.6409882 -0.49959373 1.8201541
-0.63720584 -0.5060164 1.8094137
-0.63376725 -0.51260585 1.7996495
-0.63032854 -0.51909405 1.7898848
-0.62657106 -0.52521396 1.7792151
-0.62346303 -0.53177726 1.7703896
-0.62001085 -0.5379506 1.7605867
-0.61688805 -0.54431295 1.7517191
-0.6134451 -0.55029637 1.7419426
-0.6100151 -0.5561902 1.7322026
-0.60658675 -0.56198484 1.7224677
-0.60319257 -0.56771064 1.7128294
-0.6008193 -0.57431257 1.7060903
-0.59912163 -0.5815004 1.7012696
-0.59812313 -0.5893272 1.6984342
-0.5992366 -0.5992366 1.701596
-0.60043484 -0.60926473 1.7049985
-0.6033134 -0.6210579 1.7131726
-0.60618514 -0.63292855 1.7213271
-0.60902005 -0.6448448 1.7293773
-0.6115156 -0.65647995 1.7364634
-0.6136929 -0.66784227 1.7426462
-0.6152787 -0.6786162 1.7471493
-0.6180121 -0.69071937 1.754911
-0.6211721 -0.703386 1.7638841
-0.62520975 -0.7171524 1.7753496
-0.6301225 -0.73205405 1.7892997
-0.6450373 -0.75886744 1.831652
-0.69397026 -0.8266411 1.9706024
-0.81101507 -0.9779888 2.3029635
-0.8466835 -1.0334519 2.4042478
-0.88876694 -1.0978886 2.5237482
-0.90186423 -1.1273303 2.5609393
-0.9272582 -1.1727089 2.6330483
-0.94701713 -1.2116249 2.6891558
-0.9518729 -1.2318355 2.7029443
-0.9541416 -1.248803 2.7093866
-0.9544094 -1.263189 2.710147
-0.9540412 -1.2767316 2.7091014
-0.9520512 -1.2880694 2.7034507
-0.9492548 -1.2982455 2.69551
-0.9476118 -1.309934 2.6908445
-0.9436531 -1.3183389 2.6796033
-0.57870054 0.8051486 1.6194661
-0.5814199 0.8005056 1.6270759
-0.57896155 0.7887302 1.6201965
-0.5786101 0.7798658 1.619213
-0.5779336 0.77057815 1.6173198
-0.5782589 0.7626313 1.6182301
-0.5782573 0.7542487 1.6182257
-0.5778908 0.74539536 1.6172
-0.5782394 0.7374647 1.6181755
-0.5779035 0.72866094 1.6172355
-0.57823867 0.72070324 1.6181735
-0.57825124 0.71233845 1.6182086
-0.5782384 0.7039424 1.6181728
-0.5782383 0.69556206 1.6181725
-0.57823825 0.6871817 1.6181724
-0.5782382 0.67880136 1.6181722
-0.57822365 0.67040426 1.6181315
-0.57822347 0.66202396 1.618131
-0.57822347 0.6536439 1.6181309
-0.5778746 0.6448746 1.6171547
-0.57787496 0.63649994 1.6171557
-0.57787514 0.62812513 1.6171561
-0.5775262 0.61937594 1.6161797
-0.5775133 0.6109923 1.6161436
-0.5775132 0.6026225 1.6161433
-0.57751304 0.5942525 1.6161429
-0.5774997 0.58586925 1.6161054
-0.57716304 0.57716304 1.6151634
-0.5771497 0.5687852 1.615126
-0.57681334 0.5600941 1.6141847
-0.5768131 0.55173427 1.6141841
-0.5768124 0.543374 1.6141821
-0.57679933 0.5350023 1.6141456
-0.57681227 0.52665466 1.6141818
-0.5771472 0.51859605 1.6151191
-0.5771472 0.51023155 1.615119
-0.5771479 0.5018677 1.615121
-0.5771481 0.49350345 1.6151216
-0.57714987 0.48514047 1.6151266
-0.5771511 0.47677702 1.6151301
-0.5771529 0.46841395 1.6151351
-0.57715446 0.46005064 1.6151394
-0.5775046 0.4519601 1.6161191
-0.5775056 0.44359124 1.616122
-0.5775067 0.43522248 1.6161252
-0.57751745 0.42686072 1.6161551
-0.577858 0.41873765 1.6171081
-0.5778589 0.41036358 1.6171108
-0.5778682 0.4019953 1.6171368
-0.57786113 0.39361554 1.617117
-0.57786995 0.38524663 1.6171417
-0.5778707 0.3768722 1.6171439
-0.57787097 0.36849743 1.6171446
-0.57787126 0.36012265 1.6171453
-0.5775292 0.3515395 1.616188
-0.57752234 0.34316543 1.6161689
-0.57717323 0.33459318 1.6151919
-0.5768307 0.32603472 1.6142333
-0.57682246 0.31767032 1.6142102
-0.57613134 0.30894 1.6122762
-0.57578146 0.3004077 1.6112971
-0.57578033 0.2920625 1.611294
-0.57542115 0.28354087 1.6102889
-0.57508093 0.27503872 1.6093367
-0.5757774 0.2670272 1.6112858
-0.576109 0.2588316 1.6122137
-0.5757835 0.25034064 1.6113027
-0.5774565 0.2426991 1.6159846
-0.5799513 0.23534255 1.6229662
-0.58139163 0.22750106 1.6269969
-0.58538723 0.2205807 1.6381785
-0.67793816 0.24562977 1.8971778
-0.847003 0.29460973 2.3702977
-0.84100395 0.28033465 2.3535097
-0.84322697 0.26885498 2.3597307
-0.8459313 0.25745735 2.3672986
-0.84379286 0.24457763 2.3613143
-0.84242666 0.23197255 2.357491
-0.84166855 0.2195657 2.3553696
-0.8388483 0.20667277 2.3474772
-0.8367301 0.19402438 2.3415496
-0.83467007 0.18145002 2.3357847
-0.83539546 0.16950053 2.3378146
-0.8354173 0.15739745 2.3378756
-0.8382091 0.1457755 2.3456883
-0.8423786 0.13429224 2.3573565
-0.8458861 0.122592196 2.3671722
-0.8486972 0.11069963 2.3750389
-0.85218704 0.098804295 2.384805
-0.8556776 0.08680787 2.3945732
-0.8591679 0.07471025 2.4043405
-0.86265826 0.06251147 2.4141083
-0.86617035 0.050212774 2.4239366
-0.86896235 0.037780974 2.43175
-0.8717746 0.02526883 2.43962
-0.87526387 0.012684983 2.4493845
-0.8780571 -0.0 2.4572012
-0.88017476 -0.012756156 2.4631274
-0.88364244 -0.025612824 2.4728315
-0.8857127 -0.038509246 2.478625
-0.88640964 -0.051386066 2.4805753
-0.8863855 -0.06423084 2.4805079
-0.88496673 -0.07695363 2.4765375
-0.8821544 -0.08949392 2.4686673
-0.8772302 -0.10170785 2.4548872
-0.8709475 -0.11360184 2.4373052
-0.8646439 -0.1253107 2.4196649
-0.8576853 -0.13673244 2.4001918
-0.8514252 -0.14807394 2.382673
-0.8458221 -0.15935779 2.366993
-0.8395398 -0.17034142 2.3494124
-0.8332785 -0.1811475 2.3318903
-0.8276946 -0.19192919 2.3162642
-0.8221109 -0.20254907 2.3006384
-0.8158293 -0.21282503 2.2830596
-0.810246 -0.22311121 2.267435
-0.80466205 -0.23323537 2.2518086
-0.7984017 -0.24299183 2.2342894
-0.79279834 -0.2527763 2.2186086
-0.78721535 -0.26240513 2.2029848
-0.7816516 -0.2718788 2.187415
-0.77676564 -0.28143683 2.1737418
-0.7718586 -0.29084525 2.1600096
-0.76695055 -0.3001111 2.1462748
-0.76136595 -0.30896008 2.1306465
-0.75647855 -0.31794026 2.1169693
-0.75161296 -0.32678825 2.1033533
-0.7460289 -0.3351724 2.0877266
-0.74114144 -0.34371778 2.0740492
-0.7362562 -0.35212252 2.060378
-0.7306956 -0.3600529 2.044817
-0.726484 -0.36850637 2.033031
-0.721622 -0.37649843 2.019425
-0.7167368 -0.38433713 2.005754
-0.71217775 -0.39221385 1.9929957
-0.70731574 -0.39978716 1.9793895
-0.7031279 -0.4076104 1.9676702
-0.69892967 -0.41530603 1.9559215
-0.69404465 -0.42246196 1.942251
-0.68953073 -0.42970756 1.929619
-0.68569183 -0.4372528 1.9188762
-0.68149334 -0.44445217 1.9071268
-0.6773164 -0.45154426 1.8954378
-0.673465 -0.45873705 1.8846599
-0.66961384 -0.46581835 1.8738827
-0.6661226 -0.47304362 1.8641126
-0.661934 -0.47966233 1.852391
-0.6580938 -0.48641717 1.8416444
-0.65425384 -0.4930609 1.8308984
-0.6504283 -0.4996043 1.8201927
-0.64692485 -0.506289 1.8103886
-0.64310014 -0.51261604 1.7996852
-0.6396108 -0.5191044 1.7899206
-0.6361214 -0.5254916 1.7801555
-0.6326317 -0.5317774 1.7703898
-0.62946504 -0.5382382 1.7615281
-0.6263089 -0.54461646 1.7526958
-0.6228151 -0.55060464 1.7429185
-0.6189858 -0.5561901 1.7322023
-0.61550707 -0.5619847 1.7224674
-0.61239535 -0.5680189 1.7137594
-0.6099864 -0.5746249 1.7070181
-0.6079326 -0.58150077 1.7012706
-0.6072416 -0.5896404 1.6993368
-0.60836196 -0.5995451 1.7024721
-0.6092526 -0.6092526 1.7049645
-0.6124741 -0.6213505 1.7139797
-0.615055 -0.6328827 1.7212024
-0.61793417 -0.6448009 1.7292595
-0.6205828 -0.65655863 1.7366716
-0.6225563 -0.6676691 1.7421944
-0.6244687 -0.67877036 1.7475461
-0.6274357 -0.69108856 1.755849
-0.6304873 -0.7035873 1.7643889
-0.6348663 -0.7176749 1.7766432
-0.6398777 -0.73261356 1.7906673
-0.6552254 -0.75968164 1.8336172
-0.7047857 -0.8273571 1.9723094
-0.82810503 -0.9841248 2.3174126
-0.86290467 -1.0379868 2.4147978
-0.90155303 -1.0975429 2.5229535
-0.91598946 -1.1283928 2.563353
-0.94027287 -1.1719342 2.631309
-0.9579092 -1.2077986 2.6806636
-0.9635076 -1.2288213 2.6963303
-0.96574646 -1.245673 2.7025957
-0.96619487 -1.2602541 2.7038505
-0.9658448 -1.2737952 2.7028708
-0.96406186 -1.2854159 2.6978815
-0.9611362 -1.2954445 2.6896942
-0.95965236 -1.3073525 2.6855416
-0.95606375 -1.3163196 2.675499
-0.57849544 0.79336524 1.5957651
-0.58201146 0.7898727 1.6054639
-0.5788559 0.7773207 1.5967592
-0.57885224 0.76904655 1.5967493
-0.5781662 0.75987554 1.5948567
-0.57849765 0.75204694 1.5957711
-0.57884896 0.7442343 1.5967401
-0.57847726 0.7354925 1.5957149
-0.57884556 0.72769153 1.5967308
-0.57883054 0.7194036 1.5966893
-0.5791837 0.7115686 1.5976636
-0.5791836 0.70329434 1.5976633
-0.57918346 0.6950202 1.597663
-0.5788299 0.6863269 1.5966877
-0.5788298 0.6780578 1.5966874
-0.57916945 0.6701818 1.5976243
-0.5788297 0.66151965 1.5966871
-0.578815 0.653234 1.5966464
-0.57881486 0.6449652 1.5966462
-0.5784615 0.6363077 1.5956715
-0.57846117 0.62804353 1.5956705
-0.5784483 0.61976606 1.595635
-0.57810724 0.611142 1.5946943
-0.5781067 0.6028827 1.5946927
-0.5784347 0.5949614 1.5955975
-0.57809377 0.5863523 1.5946571
-0.5780934 0.5780934 1.5946561
-0.57807976 0.5698215 1.5946184
-0.5780786 0.56156206 1.5946152
-0.5777249 0.5529652 1.5936394
-0.5780645 0.54503226 1.5945764
-0.5777243 0.53645825 1.5936378
-0.578065 0.52851653 1.5945776
-0.57806474 0.5202583 1.594577
-0.57807785 0.51201177 1.5946131
-0.57841873 0.5040506 1.5955535
-0.57841855 0.49578732 1.5955529
-0.5780919 0.48724893 1.594652
-0.5784334 0.4792734 1.5955939
-0.5784347 0.47101113 1.5955975
-0.578436 0.46274883 1.5956012
-0.57877946 0.4547553 1.5965486
-0.5791239 0.44675273 1.5974987
-0.57913625 0.4384889 1.5975327
-0.57914805 0.43022427 1.5975653
-0.5791496 0.42195186 1.5975696
-0.5795048 0.41393197 1.5985492
-0.57951486 0.40566042 1.5985771
-0.5795062 0.39737567 1.5985532
-0.5795163 0.3891038 1.5985811
-0.57951725 0.38082564 1.5985837
-0.57951814 0.37254736 1.5985861
-0.5795183 0.36426866 1.5985867
-0.5795184 0.35598987 1.5985868
-0.57951087 0.3477065 1.598566
-0.57916415 0.33922473 1.5976096
-0.5788097 0.33074838 1.5966319
-0.5784549 0.32228205 1.5956533
-0.5780995 0.31382543 1.5946728
-0.5773901 0.30519187 1.5927159
-0.57669955 0.29658833 1.5908111
-0.5766886 0.2883443 1.5907809
-0.5763232 0.27992842 1.5897729
-0.5759791 0.271533 1.5888238
-0.57633245 0.26346627 1.5897985
-0.57668346 0.2553884 1.5907668
-0.5766788 0.24714807 1.5907539
-0.57772774 0.23934434 1.5936474
-0.57951194 0.23180477 1.598569
-0.58235013 0.22462076 1.6063981
-0.58649194 0.21783985 1.6178231
-0.64876133 0.23170048 1.7895918
-0.84921134 0.29115817 2.342528
-0.8549203 0.2809024 2.3582761
-0.8524664 0.26791802 2.351507
-0.8567282 0.25701848 2.3632631
-0.85393494 0.24398142 2.355558
-0.85322064 0.23158847 2.3535876
-0.85315686 0.2193832 2.3534117
-0.8510055 0.20667277 2.3474772
-0.8488853 0.19403093 2.3416286
-0.84747505 0.1816018 2.3377385
-0.84821147 0.16964228 2.3397698
-0.8482138 0.15752542 2.3397763
-0.8510469 0.14589375 2.3475914
-0.85458773 0.13429236 2.3573587
-0.8581461 0.12259229 2.3671741
-0.8616861 0.11078821 2.3769393
-0.8652452 0.09888516 2.386757
-0.8680977 0.08680978 2.3946257
-0.8716396 0.07471196 2.4043958
-0.87518173 0.06251298 2.4141667
-0.8780373 0.05017356 2.4220436
-0.8815771 0.03778187 2.431808
-0.88511574 0.025289021 2.4415693
-0.8879475 0.012684964 2.4493806
-0.8908028 -0.0 2.457257
-0.8936372 -0.012766245 2.4650755
-0.89647037 -0.025613438 2.4728909
-0.8985712 -0.038510192 2.4786859
-0.8999401 -0.051425148 2.482462
-0.8999169 -0.06427978 2.482398
-0.89779323 -0.0769537 2.4765399
-0.89562756 -0.08956276 2.470566
-0.89065224 -0.10178883 2.4568417
-0.8842778 -0.113692865 2.439258
-0.8771956 -0.12531365 2.4197218
-0.8708227 -0.13684358 2.4021425
-0.86445075 -0.14819156 2.3845656
-0.85809994 -0.15936142 2.367047
-0.8524136 -0.17048271 2.3513613
-0.8460415 -0.1812946 2.333784
-0.84037614 -0.19208597 2.3181562
-0.83404565 -0.20255394 2.3006938
-0.8283603 -0.21300694 2.285011
-0.8226958 -0.22330315 2.2693856
-0.81632346 -0.23323528 2.2518077
-0.8113464 -0.24340393 2.2380786
-0.80499554 -0.2529986 2.2205598
-0.79933107 -0.26263735 2.2049346
-0.7936667 -0.2721143 2.1893096
-0.7887091 -0.28168184 2.1756341
-0.78373 -0.2910997 2.1618993
-0.778086 -0.3001189 2.1463306
-0.7731062 -0.3092425 2.132594
-0.76814795 -0.31823274 2.1189167
-0.76250464 -0.32678768 2.1033497
-0.75754684 -0.335485 2.0896738
-0.7525894 -0.34404087 2.0759988
-0.74763244 -0.35245532 2.0623252
-0.7426757 -0.3607282 2.0486522
-0.7370362 -0.3685181 2.0330958
-0.73276365 -0.3768499 2.02131
-0.7278079 -0.38469845 2.0076396
-0.722864 -0.3924119 1.994002
-0.71792024 -0.39998412 1.9803648
-0.7136718 -0.40781245 1.9686456
-0.70907044 -0.41531268 1.9559529
-0.70446813 -0.42268085 1.9432575
-0.6998776 -0.42992482 1.9305947
-0.6956296 -0.43725288 1.9188766
-0.69173473 -0.44468662 1.9081328
-0.6874745 -0.45176896 1.896381
-0.6835792 -0.45897463 1.885636
-0.67968416 -0.46606913 1.8748915
-0.67578906 -0.47305232 1.864147
-0.67154056 -0.4796718 1.8524276
-0.6676447 -0.48642683 1.8416809
-0.6637494 -0.493071 1.830936
-0.66019523 -0.4998621 1.8211318
-0.65631413 -0.5062995 1.810426
-0.6527615 -0.5128841 1.8006262
-0.6495754 -0.51966035 1.7918373
-0.64569473 -0.52578 1.7811326
-0.6421418 -0.5320604 1.771332
-0.6386012 -0.53824955 1.7615652
-0.6353865 -0.54461706 1.7526977
-0.63185585 -0.5506172 1.7429583
-0.6283107 -0.5565037 1.7331791
-0.6247658 -0.56228924 1.7234007
-0.6216081 -0.56832737 1.7146901
-0.61882687 -0.57462496 1.7070183
-0.61707634 -0.5818148 1.7021894
-0.61606336 -0.58966064 1.6993952
-0.6171482 -0.5995154 1.7023877
-0.6183575 -0.6095238 1.7057234
-0.6213465 -0.6213465 1.7139685
-0.6240104 -0.63292485 1.7213169
-0.6269571 -0.64487016 1.7294453
-0.6295988 -0.6565816 1.7367324
-0.63187313 -0.6679802 1.7430061
-0.63375586 -0.67902416 1.7481996
-0.63646007 -0.6910138 1.755659
-0.63947827 -0.7034261 1.7639847
-0.64396983 -0.7175664 1.7763745
-0.6494294 -0.73292744 1.7914345
-0.6650742 -0.7600848 1.8345904
-0.71471506 -0.82702744 1.9715234
-0.8454077 -0.99033475 2.3320358
-0.8804631 -1.0439777 2.4287353
-0.9128871 -1.0954646 2.518176
-0.92844117 -1.1273928 2.5610814
-0.9522891 -1.1699551 2.6268654
-0.9685712 -1.2037957 2.6717792
-0.9741934 -1.2247002 2.6872878
-0.9764832 -1.2415286 2.6936042
-0.9769197 -1.2560396 2.6948082
-0.97691387 -1.2699881 2.6947923
-0.9750125 -1.281445 2.6895473
-0.9722397 -1.2916899 2.6818986
-0.97093 -1.3038203 2.6782858
-0.9665311 -1.3117207 2.6661515
-0.5796002 0.7836848 1.576294
-0.5821645 0.77895254 1.583268
-0.5799409 0.76780915 1.5772207
-0.57922214 0.7586994 1.5752658
-0.5788635 0.7500766 1.5742904
-0.5792407 0.742407 1.5753162
-0.579919 0.73510855 1.577161
-0.5795594 0.72648996 1.576183
-0.579918 0.7187717 1.5771585
-0.579931 0.7106197 1.5771937
-0.58026326 0.7028541 1.5780973
-0.58027583 0.6946964 1.5781314
-0.57991713 0.6860992 1.577156
-0.57991654 0.67793065 1.5771544
-0.5799031 0.6697473 1.5771179
-0.5795579 0.66118574 1.5761789
-0.579888 0.65339494 1.5770767
-0.57988757 0.645227 1.5770755
-0.5795429 0.6366809 1.5761381
-0.579529 0.62850326 1.5761003
-0.5795294 0.6203413 1.5761014
-0.5795157 0.6121645 1.5760642
-0.5791701 0.60364205 1.5751243
-0.5791701 0.59548473 1.5751243
-0.57917005 0.58732736 1.5751241
-0.5791699 0.5791699 1.5751238
-0.5791695 0.5710122 1.5751227
-0.579169 0.56285435 1.5751212
-0.57915425 0.55468297 1.5750812
-0.57915413 0.5465257 1.5750809
-0.57915455 0.538369 1.575082
-0.5791549 0.5302122 1.5750829
-0.5795003 0.52236646 1.5760224
-0.579501 0.5142051 1.5760242
-0.5795144 0.5060548 1.5760607
-0.5798607 0.49819016 1.5770024
-0.57986087 0.49002326 1.5770029
-0.579874 0.48186713 1.5770386
-0.5802207 0.47398314 1.5779816
-0.58022135 0.46581152 1.5779834
-0.58056974 0.45791414 1.5789307
-0.5805828 0.44974726 1.5789664
-0.5805835 0.44157055 1.5789682
-0.58094376 0.43366227 1.5799481
-0.5809561 0.42548898 1.5799816
-0.58095723 0.4173073 1.5799845
-0.58131725 0.40937835 1.5809637
-0.58131814 0.40119138 1.5809661
-0.58096963 0.3927682 1.5800184
-0.58132017 0.3848176 1.5809717
-0.58132184 0.37663102 1.5809761
-0.5809639 0.36821657 1.5800028
-0.5809643 0.36003423 1.5800039
-0.5806137 0.35163927 1.5790503
-0.5806132 0.34346133 1.579049
-0.5802539 0.33507618 1.5780718
-0.57989436 0.32670107 1.5770941
-0.57953435 0.31833577 1.576115
-0.57917386 0.30998036 1.5751345
-0.5784642 0.30145317 1.5732045
-0.57810396 0.29312316 1.5722249
-0.5777438 0.2848033 1.5712454
-0.57738405 0.2764938 1.570267
-0.57738316 0.26836118 1.5702645
-0.57775456 0.26039642 1.5712745
-0.57845604 0.25256532 1.5731823
-0.5788106 0.24456784 1.5741465
-0.57951784 0.23670447 1.57607
-0.5806824 0.22900149 1.5792371
-0.5820323 0.22133623 1.5829084
-0.5863968 0.21473686 1.5947783
-0.64481974 0.2270492 1.7536665
-0.8350233 0.28226137 2.2709484
-0.86216205 0.27929193 2.3447556
-0.8622056 0.2671623 2.3448741
-0.8674607 0.2565729 2.3591661
-0.8653772 0.24376822 2.3534997
-0.8646578 0.2313873 2.3515432
-0.86459434 0.21919292 2.3513706
-0.8638464 0.20683648 2.3493366
-0.8610108 0.1940306 2.3416247
-0.8602755 0.18174835 2.339625
-0.8603289 0.16964233 2.3397703
-0.86033213 0.1575256 2.339779
-0.8632053 0.14589386 2.347593
-0.86681473 0.13429524 2.3574092
-0.86970544 0.12249372 2.3652709
-0.8740144 0.11079056 2.3769896
-0.8776055 0.09888513 2.386756
-0.8811967 0.086878546 2.3965228
-0.88409096 0.07471191 2.404394
-0.88768345 0.06251292 2.4141643
-0.891275 0.050212674 2.4239318
-0.8941698 0.037781823 2.4318047
-0.897759 0.025288986 2.441566
-0.90063107 0.012684945 2.449377
-0.90352696 -0.0 2.4572527
-0.90640175 -0.012766222 2.465071
-0.9092763 -0.025613418 2.4728887
-0.9114079 -0.038510192 2.4786859
-0.9127962 -0.051425137 2.4824615
-0.91279566 -0.06428138 2.48246
-0.911337 -0.077014394 2.478493
-0.9084224 -0.08956277 2.4705665
-0.90337604 -0.10178885 2.4568422
-0.89760715 -0.11378119 2.441153
-0.8904233 -0.12541173 2.4216156
-0.8839579 -0.13695122 2.4040322
-0.8774955 -0.14830911 2.386457
-0.871054 -0.15948877 2.3689384
-0.8645901 -0.17048256 2.3513591
-0.8588442 -0.18144596 2.3357325
-0.8524023 -0.19209068 2.318213
-0.846657 -0.20272069 2.3025877
-0.8408903 -0.21318346 2.2869046
-0.8344695 -0.22330873 2.2694423
-0.8287031 -0.2334375 2.25376
-0.8236549 -0.24361624 2.2400308
-0.8171928 -0.25321466 2.2224562
-0.81146795 -0.2628699 2.2068868
-0.80641854 -0.2725922 2.1931543
-0.80069375 -0.2819344 2.1775851
-0.7956428 -0.29136214 2.1638484
-0.78989553 -0.3003828 2.148218
-0.7841719 -0.3092509 2.1326518
-0.7791433 -0.31824163 2.118976
-0.7741145 -0.32709062 2.1052995
-0.7690859 -0.33579805 2.0916235
-0.76336426 -0.3440515 2.076063
-0.7590293 -0.35278827 2.0642736
-0.7532847 -0.36072788 2.0486503
-0.7482574 -0.3688593 2.034978
-0.74323136 -0.37684968 2.021309
-0.73892194 -0.385072 2.009589
-0.7335493 -0.39260384 1.9949775
-0.7285351 -0.40018126 1.9813408
-0.7238792 -0.4078193 1.9686786
-0.7195589 -0.41551992 1.9569288
-0.7148907 -0.4228931 1.9442332
-0.7105819 -0.43035242 1.9325148
-0.70628434 -0.43769735 1.9208272
-0.70196414 -0.44490683 1.9090778
-0.6976543 -0.45200136 1.8973566
-0.6937037 -0.4592123 1.8866125
-0.68974054 -0.46630347 1.8758342
-0.68544364 -0.47305265 1.8641483
-0.68149257 -0.47992435 1.8534029
-0.6775285 -0.48667538 1.842622
-0.67359066 -0.49333403 1.8319126
-0.6696404 -0.49987245 1.8211695
-0.66603553 -0.50656223 1.8113656
-0.66244596 -0.5131624 1.8016032
-0.65885574 -0.51966083 1.7918391
-0.6552781 -0.52606833 1.7821094
-0.6516745 -0.5323538 1.772309
-0.6480827 -0.5385476 1.7625406
-0.6448226 -0.5449205 1.7536744
-0.6412408 -0.5509252 1.7439332
-0.6376306 -0.5568042 1.7341148
-0.6340503 -0.562608 1.7243778
-0.6308312 -0.5686366 1.715623
-0.62800825 -0.57493716 1.7079457
-0.6262304 -0.5821297 1.7031107
-0.62519985 -0.5899773 1.7003078
-0.62632173 -0.5998574 1.7033589
-0.6271879 -0.6095206 1.7057146
-0.62991124 -0.6210392 1.713121
-0.63292664 -0.63292664 1.7213218
-0.635921 -0.6448777 1.7294654
-0.6386115 -0.65660053 1.7367824
-0.6407643 -0.6678389 1.7426373
-0.6429321 -0.6791537 1.748533
-0.6456639 -0.6911332 1.7559624
-0.64865106 -0.7034666 1.7640862
-0.6531452 -0.7175398 1.7763087
-0.65893 -0.73317564 1.7920412
-0.6753491 -0.76095676 1.836695
-0.7258048 -0.8280309 1.9739155
-0.86438036 -0.9982984 2.3507886
-0.8971615 -1.0487944 2.439941
-0.92461437 -1.09391 2.5146024
-0.9404201 -1.125855 2.557588
-0.96165264 -1.1648186 2.6153326
-0.97718495 -1.1973957 2.6575747
-0.9841426 -1.2197824 2.6764967
-0.9870891 -1.2373371 2.6845102
-0.9880045 -1.2524002 2.6869998
-0.98790354 -1.2661862 2.6867251
-0.9863718 -1.2781156 2.6825595
-0.9838609 -1.2887192 2.6757307
-0.98281085 -1.3011862 2.672875
-0.9791292 -1.3101025 2.6628623
-0.5801284 0.7735045 1.5558175
-0.5833922 0.76975363 1.5645707
-0.5804399 0.7577965 1.556653
-0.5797315 0.7488199 1.5547532
-0.5797114 0.7407423 1.5546992
-0.58009404 0.73317444 1.5557255
-0.5804566 0.72557074 1.5566977
-0.58009046 0.7170563 1.5557158
-0.58045334 0.709443 1.556689
-0.58045185 0.70137936 1.5566851
-0.58080184 0.69373554 1.5576236
-0.5808017 0.68566865 1.5576233
-0.58080155 0.67760175 1.5576228
-0.5807887 0.66952026 1.5575883
-0.5804373 0.6610536 1.556646
-0.5804372 0.65299183 1.5566456
-0.58042264 0.64491403 1.5566067
-0.5804082 0.63683677 1.556568
-0.5800585 0.62839675 1.5556302
-0.58005846 0.6203403 1.55563
-0.5800445 0.6122692 1.5555927
-0.5800447 0.6042132 1.555593
-0.580044 0.5961563 1.5555911
-0.57968026 0.58773136 1.5546157
-0.5800298 0.5800298 1.5555531
-0.58002895 0.571973 1.5555509
-0.5800429 0.5639306 1.5555882
-0.58004224 0.5558738 1.5555865
-0.58004117 0.54781663 1.5555836
-0.5803903 0.5400854 1.5565199
-0.5803923 0.5320263 1.5565253
-0.58074284 0.52428174 1.5574654
-0.5807437 0.5162166 1.5574676
-0.58110785 0.5084694 1.5584444
-0.58110905 0.5003994 1.5584475
-0.58112276 0.49234012 1.5584843
-0.5814741 0.48456174 1.5594265
-0.58148706 0.4764963 1.5594612
-0.58183783 0.4687027 1.560402
-0.5818384 0.46062207 1.5604036
-0.5821906 0.4528149 1.5613481
-0.58219105 0.44472927 1.5613493
-0.5825547 0.43691602 1.5623245
-0.5825675 0.42883444 1.562359
-0.5825679 0.42074344 1.5623598
-0.58292013 0.41290176 1.5633045
-0.58292115 0.40480635 1.5633073
-0.5829221 0.39671087 1.5633099
-0.582207 0.388138 1.5613921
-0.58220875 0.38005295 1.5613968
-0.5822001 0.37196118 1.5613736
-0.5814943 0.36343393 1.5594807
-0.5814842 0.35535145 1.5594536
-0.5811301 0.3470638 1.558504
-0.5811295 0.3389922 1.5585024
-0.58077556 0.3307194 1.5575532
-0.5807641 0.32264674 1.5575225
-0.5804096 0.31438854 1.5565717
-0.5800552 0.3061402 1.5556211
-0.57970256 0.2979027 1.5546756
-0.5797015 0.28985074 1.5546727
-0.5797016 0.2817994 1.554673
-0.5797011 0.27374777 1.5546718
-0.5797155 0.26570293 1.5547101
-0.5807924 0.25812995 1.5575984
-0.5815194 0.25037643 1.5595481
-0.58261 0.24275416 1.5624728
-0.583021 0.23482789 1.563575
-0.5844917 0.22730234 1.5675194
-0.5867776 0.2200416 1.5736498
-0.5917433 0.21368508 1.586967
-0.6296842 0.21864034 1.6887188
-0.83865005 0.27955002 2.249134
-0.87208885 0.27858394 2.3388119
-0.8758951 0.2676346 2.3490195
-0.8790119 0.25637847 2.3573785
-0.87610877 0.24336354 2.3495927
-0.87607217 0.2311857 2.3494945
-0.8760418 0.21901046 2.3494132
-0.8753162 0.2066719 2.3474672
-0.87383443 0.19418544 2.3434932
-0.87241507 0.18175313 2.3396866
-0.87315196 0.16977955 2.341663
-0.8731773 0.15765701 2.3417308
-0.8760919 0.14601532 2.3495474
-0.87973404 0.13440381 2.3593152
-0.88268274 0.12259482 2.367223
-0.8863241 0.11079051 2.3769886
-0.8899658 0.09888508 2.386755
-0.8936076 0.08687852 2.396522
-0.8972495 0.07477079 2.406289
-0.90089154 0.062561914 2.4160564
-0.9038488 0.050213825 2.4239874
-0.9074906 0.037812106 2.433754
-0.91040295 0.025288971 2.4415646
-0.91331595 0.012684944 2.4493768
-0.91695774 -0.0 2.4591434
-0.9191676 -0.012766217 2.46507
-0.922083 -0.025613418 2.4728887
-0.9242445 -0.03851019 2.4786856
-0.92565256 -0.05142514 2.4824617
-0.9263571 -0.064330354 2.4843512
-0.9241727 -0.077014394 2.478493
-0.9219452 -0.08963356 2.4725192
-0.91682726 -0.1018697 2.4587936
-0.91097635 -0.113872044 2.4431024
-0.9037119 -0.12551555 2.4236202
-0.89713407 -0.13706215 2.4059794
-0.8905804 -0.14843006 2.3884034
-0.8840278 -0.15961613 2.3708303
-0.87749463 -0.17062396 2.3533094
-0.8716458 -0.18159287 2.3376236
-0.865113 -0.19224733 2.3201036
-0.8592867 -0.20288713 2.3044784
-0.85275483 -0.21318871 2.2869608
-0.84692866 -0.22349507 2.271336
-0.841103 -0.23363973 2.2557125
-0.8359839 -0.24382862 2.2419837
-0.8294513 -0.25344348 2.2244644
-0.82360417 -0.26309577 2.2087831
-0.81779826 -0.2725994 2.1932125
-0.81267667 -0.2821794 2.1794772
-0.8068712 -0.29137015 2.1639078
-0.8010433 -0.30039123 2.1482782
-0.79594374 -0.30953366 2.134602
-0.7908438 -0.3185343 2.1209247
-0.7850175 -0.32709062 2.1052995
-0.77991736 -0.33579776 2.0916216
-0.7748186 -0.34436384 2.0779476
-0.7697205 -0.35278857 2.0642753
-0.7639203 -0.36074015 2.04872
-0.7594991 -0.36920092 2.0368629
-0.75442636 -0.37721318 2.0232587
-0.74935484 -0.38508514 2.0096576
-0.744245 -0.39279598 1.9959538
-0.7395117 -0.40056884 1.9832598
-0.73479044 -0.40821692 1.9705981
-0.73040944 -0.4159276 1.9588488
-0.72567576 -0.42331088 1.9461539
-0.7209427 -0.430563 1.9334605
-0.716585 -0.43791306 1.9217738
-0.712567 -0.44535434 1.910998
-0.7081971 -0.45245928 1.8992788
-0.7038266 -0.45944238 1.8875577
-0.69946843 -0.4663123 1.8758698
-0.6954749 -0.4733093 1.8651596
-0.6914553 -0.48017728 1.8543797
-0.68744856 -0.48694274 1.8436342
-0.6834415 -0.49359664 1.8328879
-0.6794357 -0.50014013 1.8221449
-0.6757806 -0.50683546 1.8123425
-0.6717895 -0.51317257 1.801639
-0.66816163 -0.5196813 1.7919096
-0.66485894 -0.5263467 1.7830522
-0.66121745 -0.53264743 1.7732863
-0.6575754 -0.53884655 1.763519
-0.6542684 -0.54522365 1.75465
-0.65097207 -0.55151796 1.7458097
-0.64695996 -0.5571044 1.7350498
-0.6433286 -0.5629126 1.7253112
-0.639733 -0.56865156 1.7156682
-0.6371995 -0.5752496 1.7088739
-0.6350707 -0.58214813 1.7031646
-0.6343451 -0.59029335 1.7012187
-0.63514215 -0.5998565 1.7033563
-0.63634497 -0.6098306 1.706582
-0.6390559 -0.62130433 1.7138523
-0.64179605 -0.63288224 1.721201
-0.6448254 -0.6448254 1.7293253
-0.6476117 -0.6566063 1.7367977
-0.64979315 -0.6678429 1.742648
-0.65173995 -0.6788958 1.747869
-0.65473545 -0.69110966 1.7559025
-0.65797853 -0.7036715 1.7646
-0.6626735 -0.7178963 1.7771912
-0.66835874 -0.73333806 1.7924381
-0.68608624 -0.762318 1.8399806
-0.73738027 -0.8295528 1.9775436
-0.88309103 -1.0057425 2.368318
-0.91265374 -1.052087 2.4476008
-0.93772584 -1.0940135 2.5148404
-0.94925845 -1.1206523 2.5457692
-0.96998435 -1.1585925 2.601353
-0.9866061 -1.192149 2.64593
-0.99448067 -1.2154764 2.6670485
-0.9971654 -1.2326072 2.6742485
-0.9988801 -1.2486001 2.678847
-0.9989629 -1.2625781 2.679069
-0.9975812 -1.274687 2.6753635
-0.9952152 -1.2854863 2.6690183
-0.9938673 -1.2975489 2.6654034
-0.9901478 -1.3064451 2.6554284
-0.5807412 0.7637145 1.536126
-0.5833723 0.7591831 1.5430855
-0.58042485 0.7473964 1.5352892
-0.5800299 0.73894215 1.5342444
-0.5800297 0.7309964 1.534244
-0.5803982 0.72351 1.5352186
-0.58076465 0.7160112 1.536188
-0.58074677 0.70803374 1.5361407
-0.5811158 0.70052314 1.5371168
-0.58112943 0.6925789 1.5371529
-0.5811286 0.6846172 1.5371506
-0.5814843 0.6770708 1.5380915
-0.5811154 0.6686808 1.5371158
-0.58111495 0.6607197 1.5371145
-0.58145744 0.653144 1.5380205
-0.58110136 0.64478374 1.5370786
-0.5811004 0.63682234 1.537076
-0.5807319 0.6284633 1.5361015
-0.5807311 0.6205072 1.5360992
-0.5807168 0.6125369 1.5360614
-0.5807309 0.60459656 1.5360987
-0.5807169 0.59662694 1.5360616
-0.58071667 0.5886717 1.536061
-0.58071584 0.58071584 1.5360588
-0.5810699 0.57311 1.5369953
-0.5810694 0.5651497 1.5369941
-0.58108366 0.55720353 1.5370318
-0.58143705 0.5495775 1.5379665
-0.5814363 0.54161185 1.5379645
-0.58145136 0.5336608 1.5380044
-0.5821604 0.5263368 1.5398799
-0.58216196 0.5183634 1.5398841
-0.58216333 0.5103898 1.5398877
-0.5825336 0.5027345 1.5408671
-0.5825346 0.49475542 1.5408697
-0.58290464 0.48708472 1.5418485
-0.582918 0.4791107 1.5418838
-0.5832736 0.4714129 1.5428244
-0.5832738 0.46342304 1.542825
-0.58326054 0.45542264 1.5427899
-0.58362967 0.4477159 1.5437663
-0.5836293 0.43972072 1.5437653
-0.5836283 0.43172503 1.5437626
-0.5839829 0.42398757 1.5447005
-0.58362603 0.41573364 1.5437567
-0.5836122 0.40772906 1.54372
-0.58324283 0.3994814 1.542743
-0.58324295 0.39149183 1.5427433
-0.58288914 0.38326958 1.5418075
-0.58252287 0.37504897 1.5408386
-0.58215666 0.36683846 1.53987
-0.58178985 0.3586376 1.5388998
-0.5814326 0.3504525 1.5379547
-0.5814436 0.3424942 1.5379839
-0.58144337 0.33452904 1.5379832
-0.58145446 0.32657033 1.5380126
-0.5818231 0.31880718 1.5389878
-0.5818341 0.31084287 1.5390167
-0.5818466 0.30287907 1.5390499
-0.58184594 0.29490823 1.5390481
-0.58221453 0.28711948 1.540023
-0.58296853 0.27950546 1.5420175
-0.583707 0.27186352 1.5439707
-0.584463 0.2642093 1.5459706
-0.5862928 0.25700507 1.5508106
-0.5877494 0.24959223 1.5546635
-0.5885327 0.24186274 1.5567353
-0.59004354 0.23440087 1.5607318
-0.59240234 0.22722282 1.566971
-0.5950688 0.22009394 1.5740241
-0.6052071 0.21555321 1.6008409
-0.6787933 0.23246345 1.7954848
-0.8642537 0.2841382 2.2860484
-0.88684726 0.27941763 2.345811
-0.8865916 0.26719198 2.3451347
-0.8903324 0.256123 2.3550296
-0.8882315 0.2433511 2.3494725
-0.88823926 0.23118557 2.349493
-0.8882405 0.21901822 2.3494964
-0.8874706 0.20667124 2.3474598
-0.8859984 0.19419144 2.3435657
-0.88524216 0.18189909 2.3415654
-0.88601637 0.16992095 2.3436131
-0.8860426 0.15778841 2.3436825
-0.8882786 0.1460184 2.349597
-0.8919707 0.13440654 2.359363
-0.8956802 0.122695915 2.369175
-0.8993723 0.11088151 2.378941
-0.9030458 0.09896392 2.3886578
-0.9067568 0.08694928 2.398474
-0.90973085 0.074772395 2.4063406
-0.9134252 0.06256337 2.4161127
-0.91711783 0.05025303 2.42588
-0.92009324 0.03781205 2.4337504
-0.92304647 0.025288945 2.441562
-0.9267374 0.012695033 2.451325
-0.9296931 -0.0 2.459143
-0.931934 -0.012766219 2.4650705
-0.9348902 -0.02561343 2.47289
-0.9370823 -0.03851023 2.4786882
-0.9392474 -0.051465612 2.4844153
-0.9392229 -0.06433033 2.4843504
-0.93772393 -0.0770732 2.4803855
-0.9354655 -0.089702174 2.4744117
-0.9302973 -0.10195039 2.4607413
-0.92436403 -0.113962695 2.4450471
-0.9169771 -0.1256133 2.4255078
-0.9096148 -0.13706525 2.4060338
-0.9029707 -0.14843354 2.3884592
-0.8970646 -0.15975124 2.372837
-0.89041865 -0.17076522 2.3552577
-0.88377243 -0.18159707 2.3376777
-0.87715 -0.19225205 2.3201606
-0.8719579 -0.20305869 2.306427
-0.8653362 -0.21337058 2.2889118
-0.859407 -0.22368127 2.2732284
-0.85352296 -0.23384191 2.2576644
-0.84761655 -0.2438349 2.2420413
-0.84097177 -0.25344354 2.2244651
-0.8357806 -0.26332814 2.210734
-0.829872 -0.27283463 2.195105
-0.82470125 -0.28243193 2.1814277
-0.81879187 -0.2916245 2.1657968
-0.81288296 -0.30065534 2.150167
-0.807712 -0.30980736 2.1364894
-0.8018285 -0.3185346 2.1209269
-0.7966571 -0.32739332 2.1072478
-0.7914616 -0.33610013 2.0935051
-0.786292 -0.34467596 2.079831
-0.7811232 -0.3531105 2.066159
-0.7752427 -0.36107194 2.0506043
-0.7700739 -0.3692135 2.0369322
-0.76493084 -0.37722617 2.0233283
-0.76047456 -0.385446 2.011541
-0.7549633 -0.39299458 1.996963
-0.7501637 -0.40077236 1.9842675
-0.74535286 -0.40841252 1.9715424
-0.7405781 -0.41594115 1.9589126
-0.7361357 -0.42353013 1.9471619
-0.7313368 -0.4307874 1.9344682
-0.7268946 -0.43812826 1.9227182
-0.7224765 -0.4453622 1.9110317
-0.7184141 -0.4526993 1.9002863
-0.7139715 -0.4596803 1.8885351
-0.70990926 -0.46678963 1.87779
-0.7055036 -0.47355717 1.8661364
-0.7014282 -0.48043025 1.8553566
-0.69700974 -0.48695204 1.8436694
-0.6929478 -0.49360666 1.8329251
-0.68924147 -0.5004082 1.8231213
-0.685194 -0.50685585 1.8124155
-0.6814892 -0.5134508 1.8026159
-0.67779785 -0.5199545 1.7928517
-0.67410684 -0.5263574 1.7830886
-0.6707705 -0.532941 1.7742636
-0.6670641 -0.53913397 1.7644597
-0.6633693 -0.54523504 1.7546866
-0.6600135 -0.55151814 1.7458102
-0.65631425 -0.5574176 1.7360252
-0.6522635 -0.56291234 1.7253106
-0.64895326 -0.56894535 1.7165545
-0.64606804 -0.57526606 1.7089227
-0.64423984 -0.58246344 1.704087
-0.6431568 -0.5902946 1.7012223
-0.643963 -0.59985596 1.7033547
-0.64518255 -0.6098301 1.7065805
-0.64792454 -0.6212975 1.7138335
-0.6507134 -0.63288563 1.7212102
-0.65377355 -0.64481777 1.7293048
-0.656237 -0.656237 1.7358209
-0.6588126 -0.66783744 1.7426336
-0.66082025 -0.6789249 1.747944
-0.663852 -0.69113356 1.7559633
-0.66708225 -0.70363474 1.7645078
-0.67162246 -0.717624 1.7765172
-0.677884 -0.73360044 1.7930795
-0.6970569 -0.76389796 1.843794
-0.75096583 -0.83326346 1.9863893
-0.90206534 -1.0132788 2.3860645
-0.9269963 -1.0539821 2.4520097
-0.95198643 -1.0954365 2.5181115
-0.9620463 -1.120191 2.544721
-0.9819367 -1.156802 2.5973332
-0.99763083 -1.1889573 2.638846
-1.0068847 -1.2137789 2.6633236
-1.00881 -1.2299191 2.6684163
-1.0104797 -1.2457969 2.6728327
-1.0102521 -1.2593554 2.6722307
-1.0086337 -1.2711549 2.66795
-1.0066377 -1.2824289 2.6626701
